137.9509	462.9676	14.9301
138.3433	462.8149	14.9912
138.7258	462.666	15.0508
139.116	462.5148	15.1118
139.5311	462.3552	15.1773
139.9885	462.1812	15.2502
140.4933	461.9912	15.3314
141.0316	461.7899	15.4185
141.5926	461.581	15.5096
142.1656	461.3683	15.603
142.7399	461.1554	15.6967
143.3047	460.9461	15.7888
143.8491	460.7441	15.8776
144.3734	460.5493	15.963
144.887	460.3583	16.0465
145.3935	460.17	16.129
145.8964	459.9834	16.2109
146.3993	459.7972	16.293
146.9055	459.6105	16.376
147.4186	459.422	16.4604
147.9215	459.2437	16.5457
148.4054	459.0804	16.631
148.8862	458.9206	16.7168
149.3799	458.7531	16.8035
149.9023	458.5662	16.8914
150.4696	458.3485	16.981
151.0974	458.0887	17.0726
151.8077	457.7745	17.1683
152.5935	457.412	17.2682
153.4277	457.0173	17.3703
154.2833	456.6064	17.4726
155.1333	456.195	17.573
155.9507	455.7993	17.6694
156.7084	455.435	17.7599
157.3937	455.1069	17.8423
158.0264	454.8025	17.9177
158.6282	454.5116	17.9889
159.2209	454.2244	18.0587
159.8262	453.9306	18.1299
160.4659	453.6205	18.2052
161.1617	453.2838	18.2874
161.9208	452.9171	18.3774
162.7262	452.5281	18.4728
163.5637	452.1236	18.572
164.4186	451.7107	18.6733
165.2766	451.2961	18.7749
166.1233	450.8867	18.8751
166.9442	450.4896	18.9721
167.7652	450.0929	19.0693
168.6076	449.6868	19.1694
169.4505	449.2803	19.2696
170.2729	448.8832	19.367
171.0538	448.5047	19.459
171.7722	448.1542	19.5427
172.4071	447.841	19.6154
172.9208	447.5974	19.678
173.3196	447.4256	19.7335
173.648	447.2902	19.7816
173.9506	447.1564	19.8224
174.272	446.9886	19.8555
174.657	446.7518	19.881
175.1502	446.4107	19.8987
175.7716	445.9543	19.9105
176.4884	445.4102	19.9171
177.2655	444.8013	19.9168
178.0679	444.1501	19.9075
178.8605	443.4794	19.8875
179.6083	442.8118	19.8548
180.2761	442.1701	19.8076
180.8578	441.5504	19.7425
181.3823	440.9312	19.6598
181.8677	440.3086	19.5638
182.3319	439.6793	19.4584
182.7929	439.0394	19.3479
183.2689	438.385	19.2363
183.7777	437.7127	19.1278
184.3213	437.0121	19.0189
184.8844	436.2833	18.9048
185.4589	435.5374	18.7875
186.0371	434.7862	18.6692
186.6109	434.0407	18.5519
187.1725	433.3125	18.4376
187.714	432.6129	18.3284
188.2236	431.9572	18.2266
188.7042	431.3404	18.1313
189.1704	430.7432	18.0394
189.6367	430.1469	17.9478
190.1176	429.5322	17.8534
190.6276	428.8801	17.7532
191.181	428.1716	17.6442
191.7831	427.4001	17.5253
192.4226	426.5803	17.3988
193.0896	425.725	17.2669
193.7743	424.8474	17.1316
194.4666	423.9604	16.9949
195.1568	423.0771	16.859
195.8348	422.2103	16.7259
196.5072	421.3517	16.5943
197.1849	420.4871	16.462
197.8648	419.6203	16.3295
198.5437	418.7556	16.1975
199.2184	417.8967	16.0665
199.8859	417.0477	15.9371
200.5429	416.2128	15.8099
201.1882	415.3935	15.6855
201.8241	414.5869	15.5635
202.4529	413.7899	15.4433
203.0771	412.9995	15.3239
203.699	412.2125	15.2046
204.3211	411.426	15.0846
204.9455	410.6367	14.9631
205.5463	409.8775	14.8498
206.1125	409.1621	14.7484
206.6695	408.4586	14.6497
207.2427	407.7354	14.5444
207.8576	406.9607	14.4231
208.5395	406.1027	14.2763
209.3139	405.1295	14.0949
210.2243	403.9866	13.8689
211.2627	402.6838	13.6032
212.3771	401.2865	13.3109
213.5153	399.8601	13.005
214.6252	398.4698	12.6987
215.6548	397.181	12.405
216.5518	396.0591	12.137
217.3006	395.1171	11.8922
217.9421	394.3014	11.6582
218.5096	393.577	11.4331
219.0361	392.9091	11.2149
219.5549	392.2626	11.0019
220.0991	391.6028	10.792
220.7018	390.8947	10.5833
221.3567	390.1496	10.3781
222.0323	389.4024	10.1787
222.7238	388.6532	9.9836
223.4265	387.9026	9.7914
224.1356	387.1506	9.6003
224.8465	386.3975	9.409
225.5543	385.6436	9.2158
226.2463	384.9039	9.0256
226.9225	384.183	8.8415
227.5972	383.4659	8.659
228.2848	382.7377	8.4738
228.9995	381.9833	8.2816
229.7558	381.1877	8.0781
230.5678	380.336	7.8589
231.444	379.4203	7.6219
232.3746	378.4514	7.3701
233.3462	377.4419	7.1071
234.3458	376.4049	6.8367
235.3601	375.353	6.5625
236.3761	374.299	6.288
237.3805	373.2556	6.0171
238.4139	372.1813	5.7377
239.5016	371.0509	5.4429
240.6074	369.9016	5.1432
241.6951	368.7708	4.8491
242.7284	367.6959	4.5712
243.6711	366.7142	4.3201
244.4871	365.8629	4.1062
245.1367	365.1831	3.9372
245.639	364.6554	3.8061
246.0456	364.2261	3.7019
246.4082	363.8419	3.6136
246.7783	363.4493	3.5301
247.2077	362.9948	3.4406
247.748	362.4249	3.3339
248.4019	361.7366	3.2121
249.1242	360.9764	3.0859
249.8951	360.1651	2.9567
250.6949	359.3237	2.8261
251.5037	358.4728	2.6955
252.3017	357.6335	2.5666
253.0691	356.8265	2.441
253.8145	356.043	2.3178
254.5583	355.2615	2.1956
255.2986	354.4838	2.0744
256.0333	353.712	1.9545
256.7606	352.9478	1.836
257.4783	352.1932	1.7191
258.1845	351.45	1.6041
258.8874	350.7133	1.489
259.5915	349.9799	1.3733
260.2892	349.2539	1.2586
260.9731	348.5397	1.1465
261.6356	347.8416	1.0388
262.2691	347.1637	0.9371
262.8662	346.5104	0.8432
263.4267	345.889	0.756
263.9573	345.2979	0.6739
264.4606	344.7286	0.5971
264.9392	344.1724	0.5261
265.3958	343.6207	0.461
265.8329	343.0648	0.4023
266.2534	342.4961	0.3503
266.6463	341.9233	0.307
267.006	341.3569	0.2729
267.3421	340.791	0.2457
267.6644	340.2201	0.2233
267.9828	339.6382	0.2036
268.3071	339.0397	0.1842
268.647	338.4185	0.1631
269.0067	337.7632	0.1406
269.3789	337.0747	0.1186
269.756	336.3668	0.0977
270.1309	335.6533	0.0782
270.496	334.9478	0.0606
270.844	334.2641	0.0453
271.1675	333.6158	0.0328
271.4567	333.0206	0.0238
271.7148	332.4722	0.0181
271.954	331.9484	0.0149
272.187	331.4269	0.0133
272.4257	330.8856	0.0125
272.6826	330.3021	0.0118
272.9701	329.6542	0.0102
273.2968	328.9196	0.0082
273.6548	328.1106	0.0064
274.0312	327.2569	0.005
274.413	326.3883	0.0038
274.7875	325.5347	0.0029
275.1418	324.726	0.0022
275.463	323.9918	0.0017
275.7468	323.3423	0.0015
276.0031	322.7543	0.0017
276.2406	322.2079	0.0022
276.468	321.683	0.0029
276.6938	321.1596	0.0036
276.9269	320.6176	0.0043
277.1758	320.037	0.0049
277.4316	319.4424	0.0055
277.6838	318.8598	0.0063
277.9383	318.2712	0.0071
278.201	317.6589	0.0078
278.478	317.0048	0.0084
278.7751	316.2911	0.0087
279.0984	315.4998	0.0086
279.4514	314.6832	0.0087
279.8303	313.8746	0.0095
280.2292	313.0276	0.0101
280.6426	312.0963	0.0102
281.0645	311.0341	0.0089
281.4895	309.7949	0.0057
281.9117	308.3324	0
282.3545	306.5204	-0.0093
282.8307	304.3579	-0.0219
283.3188	301.9865	-0.0367
283.7976	299.5481	-0.0523
284.2456	297.1841	-0.0676
284.6414	295.0364	-0.0812
284.9635	293.2466	-0.0919
285.1982	291.8719	-0.0998
285.36	290.8053	-0.1059
285.4697	289.9425	-0.1106
285.5483	289.1792	-0.1145
285.6167	288.4108	-0.1178
285.6959	287.533	-0.1211
285.8068	286.4415	-0.1247
285.9462	285.1132	-0.13
286.0946	283.6332	-0.137
286.2481	282.0593	-0.1442
286.4028	280.4495	-0.1503
286.5548	278.8613	-0.1538
286.7003	277.3527	-0.1534
286.8353	275.9814	-0.1477
286.9638	274.7587	-0.1519
287.0906	273.6369	-0.1724
287.213	272.5854	-0.1945
287.3283	271.574	-0.2031
287.434	270.5721	-0.1835
287.5273	269.5491	-0.1207
287.6057	268.4748	0
287.6755	267.3592	0.1663
287.7412	266.2328	0.3607
287.7973	265.0957	0.5908
287.8383	263.9477	0.8641
287.8586	262.7888	1.188
287.8527	261.6188	1.57
287.8151	260.4378	2.0177
287.7374	259.2334	2.5543
287.6218	258.0014	3.1811
287.4785	256.7542	3.8722
287.3176	255.5045	4.6017
287.1492	254.2644	5.3436
286.9835	253.0465	6.0722
286.8306	251.8632	6.7615
286.6872	250.7122	7.4218
286.5432	249.5816	8.0793
286.3984	248.4696	8.7326
286.2529	247.3745	9.3802
286.1068	246.2943	10.0204
285.9598	245.2274	10.6517
285.8122	244.172	11.2727
285.6771	243.1376	11.8746
285.559	242.1293	12.456
285.4445	241.1377	13.0259
285.3205	240.154	13.5937
285.1737	239.1689	14.1682
284.9908	238.1732	14.7588
284.7587	237.1581	15.3745
284.475	236.1057	16.0215
284.1508	235.0185	16.6938
283.7928	233.9169	17.382
283.4076	232.8217	18.0771
283.0018	231.7533	18.7697
282.5821	230.7323	19.4507
282.1551	229.7794	20.1109
281.7124	228.9052	20.7493
281.2453	228.0952	21.3739
280.7599	227.3315	21.9885
280.2625	226.5968	22.5973
279.7594	225.8732	23.2041
279.2568	225.1432	23.8129
278.761	224.3893	24.4277
278.2804	223.6346	25.0348
277.8124	222.9028	25.6261
277.3463	222.1762	26.214
276.8716	221.4375	26.8109
276.3776	220.6691	27.429
275.8536	219.8537	28.081
275.2891	218.9736	28.779
274.6766	218.0172	29.5453
274.023	216.9959	30.3763
273.3394	215.9275	31.2457
272.6367	214.8295	32.1271
271.9259	213.7197	32.9943
271.218	212.6158	33.821
270.5238	211.5353	34.5809
269.8357	210.461	35.2826
269.1412	209.3714	35.9524
268.4445	208.2779	36.5903
267.7498	207.192	37.1966
267.0613	206.125	37.7715
266.3831	205.0885	38.3149
265.7194	204.0937	38.8271
265.0734	203.1491	39.2945
264.4426	202.2474	39.7123
263.8222	201.3762	40.094
263.2077	200.5236	40.4535
262.5944	199.6772	40.8044
261.9777	198.8248	41.1602
261.353	197.9543	41.5346
260.7372	197.0902	41.9137
260.14	196.2515	42.2808
259.5461	195.4176	42.6451
258.9401	194.5683	43.0162
258.3067	193.6831	43.4033
257.6305	192.7415	43.8159
256.8962	191.7232	44.2633
256.0753	190.5771	44.7657
255.1717	189.3041	45.3213
254.2193	187.9623	45.907
253.2517	186.6096	46.4996
252.3026	185.304	47.0758
251.4058	184.1033	47.6124
250.595	183.0655	48.0863
249.8923	182.2036	48.4913
249.275	181.4703	48.846
248.7099	180.8333	49.1643
248.1636	180.2606	49.46
247.6027	179.7198	49.7468
246.994	179.1788	50.0386
246.304	178.6053	50.349
245.5584	178.0311	50.6643
244.7952	177.4953	50.9675
244.0001	176.977	51.2679
243.1586	176.4552	51.5748
242.2563	175.909	51.8976
241.2786	175.3174	52.2456
240.2113	174.6593	52.6282
238.995	173.9007	53.07
237.6229	173.0487	53.5711
236.1589	172.1446	54.1036
234.6672	171.2295	54.6396
233.2117	170.3446	55.1512
231.8567	169.5313	55.6105
230.6662	168.8307	55.9896
229.6728	168.2559	56.2829
228.8306	167.7749	56.5133
228.0854	167.3606	56.6957
227.3832	166.986	56.8451
226.6699	166.6243	56.9765
225.8915	166.2485	57.1046
224.9939	165.8316	57.2446
223.9914	165.3861	57.3869
222.9371	164.9399	57.5149
221.8344	164.4897	57.6333
220.687	164.0321	57.7466
219.4985	163.5637	57.8595
218.2725	163.0811	57.9764
217.0125	162.5809	58.1021
215.6826	162.0479	58.2379
214.2673	161.4802	58.3802
212.8017	160.8939	58.526
211.3206	160.3054	58.6725
209.859	159.731	58.8166
208.4518	159.1869	58.9554
207.1339	158.6895	59.0858
205.8996	158.2044	59.2096
204.716	157.7058	59.3301
203.5772	157.2224	59.4465
202.4771	156.7833	59.5581
201.4098	156.4171	59.6639
200.3692	156.1528	59.7634
199.3495	156.0193	59.8556
198.3561	156.0275	59.9405
197.3963	156.1556	60.0189
196.4665	156.3828	60.0909
195.563	156.6885	60.157
194.6823	157.0519	60.2175
193.8206	157.4524	60.2726
192.9745	157.8693	60.3227
192.1505	158.3278	60.3657
191.3543	158.8549	60.4007
190.5803	159.432	60.4296
189.8229	160.0409	60.4543
189.0766	160.663	60.4769
188.3357	161.2799	60.4992
187.5949	161.8732	60.5233
186.8649	162.4526	60.5446
186.1543	163.0376	60.5599
185.454	163.6248	60.573
184.7552	164.2106	60.5878
184.0487	164.7915	60.6081
183.3257	165.364	60.6378
182.5771	165.9244	60.6807
181.7843	166.4839	60.7396
180.9489	167.0492	60.812
180.0927	167.6105	60.8938
179.2374	168.158	60.9811
178.4047	168.6818	61.0695
177.6164	169.172	61.1551
176.8943	169.619	61.2338
176.2567	170.0212	61.3005
175.6907	170.3871	61.3571
175.1704	170.7213	61.4101
174.67	171.0282	61.4659
174.1638	171.3126	61.5309
173.6261	171.5789	61.6116
173.031	171.8318	61.7143
172.3689	172.0656	61.844
171.6596	172.2746	61.9966
170.9212	172.4627	62.1649
170.172	172.6339	62.3421
169.4301	172.7922	62.5213
168.7137	172.9417	62.6953
168.041	173.0863	62.8573
167.4288	173.2191	63.0045
166.8666	173.3343	63.1422
166.3314	173.4373	63.2755
165.8004	173.5339	63.4094
165.2509	173.6298	63.5489
164.6599	173.7304	63.6991
164.0047	173.8414	63.8649
163.2637	173.9647	64.0523
162.45	174.0959	64.2588
161.5927	174.2312	64.4768
160.7211	174.367	64.6987
159.8643	174.4996	64.917
159.0515	174.6252	65.124
158.3121	174.7403	65.3123
157.6471	174.8434	65.4816
157.031	174.9373	65.6387
156.4529	175.0247	65.7862
155.9018	175.1081	65.9267
155.3668	175.1902	66.0631
154.8368	175.2737	66.1979
154.3009	175.3612	66.334
153.7863	175.4225	66.467
153.3117	175.4453	66.5932
152.8536	175.4588	66.716
152.3887	175.4923	66.8385
151.8933	175.575	66.964
151.3442	175.7359	67.0959
150.7177	176.0045	67.2373
149.9829	176.4033	67.3943
149.1502	176.914	67.566
148.2586	177.504	67.7453
147.3469	178.1411	67.925
146.454	178.7928	68.0982
145.6187	179.4265	68.2575
144.8801	180.0099	68.396
144.247	180.5469	68.5108
143.6878	181.0675	68.6073
143.1807	181.5787	68.6907
142.7037	182.0875	68.7661
142.2349	182.6008	68.8389
141.7524	183.1256	68.9141
141.2344	183.6689	68.997
140.694	184.2234	69.0848
140.1549	184.7803	69.172
139.6114	185.3448	69.2596
139.0576	185.9218	69.3486
138.4878	186.5163	69.4401
137.8962	187.1333	69.5352
137.277	187.7779	69.6348
136.6192	188.4619	69.7407
135.9243	189.1848	69.8526
135.2053	189.933	69.9683
134.4749	190.6932	70.0858
133.7462	191.4516	70.203
133.032	192.1949	70.3179
132.3454	192.9095	70.4284
131.6885	193.593	70.5341
131.0508	194.2567	70.6368
130.4256	194.9073	70.7373
129.8061	195.5519	70.837
129.1859	196.1974	70.9368
128.5581	196.8506	71.0378
127.9162	197.5186	71.1411
127.2536	198.2081	71.2478
126.574	198.9152	71.3571
125.8862	199.6307	71.4678
125.1989	200.3457	71.5784
124.5211	201.051	71.6875
123.8613	201.7375	71.7936
123.2284	202.3961	71.8955
122.6159	203.0332	71.9941
122.0139	203.659	72.091
121.4258	204.2702	72.1857
120.8553	204.8634	72.2775
120.306	205.4352	72.3659
119.7815	205.9821	72.4502
119.2855	206.5008	72.5298
118.8209	206.9886	72.6044
118.3855	207.4478	72.6743
117.9753	207.8819	72.7401
117.5858	208.295	72.8025
117.2128	208.6906	72.8621
116.8521	209.0725	72.9194
116.4994	209.4447	72.9751
116.1667	209.7915	73.0272
115.8618	210.1044	73.0744
115.5742	210.3976	73.1186
115.2932	210.6856	73.1616
115.0083	210.9823	73.2052
114.7088	211.3023	73.2512
114.3844	211.6596	73.3015
114.0317	212.06	73.3566
113.6591	212.4928	73.415
113.2734	212.9474	73.4756
112.8811	213.4134	73.5373
112.4891	213.8804	73.5988
112.1038	214.3379	73.6591
111.732	214.7754	73.717
111.3709	215.1967	73.7729
111.0137	215.6125	73.8279
110.661	216.0223	73.882
110.3131	216.426	73.9353
109.9708	216.823	73.9876
109.6346	217.2131	74.0391
109.3049	217.596	74.0896
108.989	217.9633	74.1381
108.6888	218.3126	74.1842
108.3969	218.6522	74.229
108.1059	218.9907	74.2737
107.8086	219.3363	74.3194
107.4974	219.6977	74.3671
107.1651	220.0831	74.418
106.8062	220.4987	74.4728
106.4253	220.9394	74.531
106.0305	221.3959	74.5913
105.6297	221.8592	74.6525
105.2308	222.3202	74.7133
104.8417	222.7698	74.7727
104.4706	223.199	74.8294
104.1201	223.6046	74.8829
103.7844	223.9934	74.9342
103.4578	224.3717	74.9842
103.1346	224.7459	75.0336
102.8094	225.1224	75.0833
102.4766	225.5074	75.1341
102.1305	225.9072	75.1869
101.7674	226.3261	75.2423
101.3909	226.7601	75.2996
101.0068	227.2025	75.358
100.6207	227.6472	75.4167
100.2383	228.0876	75.4748
99.8652	228.5172	75.5316
99.5071	228.9297	75.586
99.162	229.3274	75.6386
98.8243	229.7167	75.69
98.494	230.0974	75.7402
98.1712	230.4696	75.7894
97.8561	230.8329	75.8373
97.5488	231.1872	75.8841
97.2495	231.5325	75.9297
96.9743	231.8508	75.9718
96.7283	232.1364	76.0095
96.4955	232.407	76.0452
96.2598	232.6807	76.0813
96.0049	232.9753	76.1202
95.715	233.3088	76.1643
95.3737	233.6989	76.2158
94.9718	234.1562	76.2762
94.5204	234.6683	76.3438
94.0343	235.2187	76.4165
93.5283	235.791	76.4921
93.017	236.3686	76.5684
92.5154	236.9352	76.6433
92.038	237.4741	76.7145
91.5725	238	76.784
91.1016	238.5321	76.8543
90.6328	239.0617	76.9242
90.1737	239.5797	76.9927
89.7318	240.0771	77.0584
89.3148	240.545	77.1202
88.9302	240.9744	77.1769
88.597	241.3419	77.2255
88.3151	241.6476	77.2659
88.0627	241.9179	77.3017
87.8181	242.1793	77.3363
87.5597	242.4583	77.3732
87.2659	242.7812	77.4159
86.9149	243.1746	77.4678
86.5098	243.6288	77.5279
86.0711	244.1172	77.5924
85.6028	244.6404	77.6615
85.1089	245.1994	77.7354
84.5936	245.7948	77.814
84.061	246.4274	77.8975
83.515	247.098	77.9859
82.9204	247.8525	78.0853
82.2617	248.7056	78.1977
81.573	249.6111	78.3169
80.8881	250.5227	78.4369
80.2414	251.3941	78.5516
79.6667	252.1793	78.6549
79.1982	252.8318	78.7407
78.8575	253.3241	78.8056
78.6216	253.6882	78.854
78.4576	253.967	78.8912
78.3322	254.2035	78.9227
78.2124	254.4407	78.9538
78.0651	254.7215	78.9899
77.8573	255.089	79.0366
77.5926	255.542	79.0934
77.3017	256.042	79.1554
76.9918	256.5757	79.2212
76.6704	257.1299	79.2893
76.3449	257.6914	79.3582
76.0228	258.2469	79.4263
75.7115	258.7831	79.4921
75.4114	259.2996	79.5556
75.1163	259.8079	79.6182
74.823	260.3129	79.6802
74.5286	260.8197	79.7425
74.2301	261.3331	79.8054
73.9243	261.8581	79.8697
73.6084	262.3997	79.9358
73.2829	262.9572	80.0037
72.9505	263.5257	80.0729
72.6119	264.1045	80.1432
72.2674	264.6927	80.2145
71.9174	265.2893	80.2868
71.5625	265.8936	80.3598
71.2031	266.5047	80.4334
70.8251	267.1456	80.5103
70.4234	267.8249	80.5915
70.012	268.5197	80.6743
69.6048	269.2072	80.7563
69.2155	269.8645	80.8347
68.8583	270.4689	80.907
68.5468	270.9975	80.9705
68.2977	271.4235	81.0223
68.104	271.7583	81.0637
67.9446	272.0363	81.0985
67.7985	272.2919	81.1306
67.6446	272.5593	81.1639
67.4618	272.873	81.2023
67.2292	273.2673	81.2496
66.9514	273.7328	81.3044
66.6488	274.2357	81.3629
66.3236	274.7741	81.425
65.978	275.3459	81.491
65.6145	275.9492	81.561
65.2353	276.582	81.635
64.8426	277.2423	81.7132
64.419	277.9556	81.7979
63.9566	278.7322	81.8897
63.4721	279.5471	81.9862
62.9823	280.3757	82.0853
62.504	281.1929	82.1845
62.0539	281.9739	82.2816
61.6487	282.6938	82.3742
61.2917	283.3425	82.4602
60.9691	283.9389	82.541
60.6721	284.5011	82.6194
60.3917	285.0477	82.6984
60.1194	285.5969	82.7807
59.8462	286.167	82.8692
59.5634	286.7765	82.9667
59.2765	287.425	83.0747
58.9952	288.096	83.1911
58.7169	288.7838	83.3135
58.4389	289.4827	83.4396
58.1586	290.1867	83.5669
57.8735	290.89	83.693
57.5809	291.5868	83.8156
57.2804	292.279	83.9351
56.9742	292.9725	84.054
56.6637	293.6673	84.1724
56.3499	294.3634	84.2906
56.0343	295.0606	84.4087
55.7181	295.7592	84.527
55.4025	296.4588	84.6457
55.0975	297.1384	84.7613
54.8056	297.7908	84.8725
54.5161	298.4372	84.9826
54.2185	299.0991	85.0951
53.9024	299.7977	85.2134
53.5572	300.5544	85.3409
53.1725	301.3904	85.4811
52.7439	302.3151	85.6355
52.2793	303.3127	85.8016
51.7867	304.3668	85.9767
51.2736	305.4608	86.1581
50.748	306.5782	86.343
50.2177	307.7027	86.5289
49.6904	308.8176	86.7128
49.149	309.9576	86.9004
48.5806	311.1488	87.0958
48	312.3621	87.2945
47.4219	313.5685	87.4919
46.861	314.739	87.6834
46.3319	315.8446	87.8645
45.8495	316.8562	88.0305
45.4212	317.7603	88.1795
45.0366	318.5782	88.3149
44.6831	319.333	88.4401
44.3482	320.0481	88.5588
44.0197	320.7465	88.6744
43.6849	321.4515	88.7904
43.3315	322.1863	88.9104
42.9545	322.9587	89.0353
42.5632	323.7506	89.1624
42.1669	324.5465	89.2894
41.7746	325.331	89.4143
41.3955	326.0884	89.5348
41.0388	326.8033	89.6487
40.7135	327.4602	89.754
40.438	328.0155	89.8428
40.2102	328.4683	89.9146
40.0089	328.8675	89.9778
39.8125	329.2619	90.0408
39.6001	329.7003	90.112
39.3501	330.2314	90.1998
39.0413	330.904	90.3128
38.6355	331.7391	90.4483
38.1391	332.7005	90.5979
37.5972	333.7507	90.7615
37.055	334.8526	90.9388
36.5579	335.9688	91.1295
36.151	337.062	91.3334
35.8797	338.0949	91.5501
35.7511	339.09	91.7856
35.7277	340.0877	92.0419
35.787	341.0782	92.3133
35.9064	342.0516	92.5943
36.0637	342.9977	92.8789
36.2364	343.9068	93.1614
36.4022	344.7687	93.4362
36.5696	345.5446	93.6937
36.7617	346.2305	93.9358
36.9771	346.8683	94.1739
37.2144	347.5005	94.4196
37.4727	348.1694	94.6841
37.7506	348.917	94.9791
38.0468	349.7857	95.3159
38.3808	350.824	95.7156
38.7603	352.0104	96.1753
39.1662	353.2825	96.6698
39.5793	354.5776	97.1742
39.9807	355.833	97.6636
40.3513	356.9863	98.1129
40.6721	357.9748	98.4972
40.9303	358.7573	98.8005
41.1385	359.3755	99.0398
41.3159	359.8917	99.2393
41.4816	360.368	99.4232
41.6548	360.8665	99.6158
41.8546	361.4495	99.8413
42.1002	362.1789	100.1239
42.3784	363.0694	100.4715
42.668	364.0705	100.8652
42.9757	365.1469	101.289
43.308	366.2637	101.7271
43.6717	367.3853	102.1634
44.0734	368.4766	102.5821
44.5199	369.5024	102.9672
45.0255	370.4963	103.3314
45.589	371.5006	103.693
46.1939	372.4936	104.0448
46.8236	373.4536	104.3793
47.4615	374.3586	104.6894
48.091	375.1871	104.9676
48.6956	375.9172	105.2066
49.2682	376.5194	105.3963
49.8214	377.0035	105.5397
50.3676	377.4058	105.6495
50.9192	377.7633	105.7383
51.4889	378.1125	105.8189
52.0892	378.49	105.9039
52.7326	378.9324	106.006
53.4315	379.4346	106.1221
54.1789	379.9622	106.2398
54.9583	380.5082	106.3581
55.7529	381.0657	106.4758
56.5465	381.6277	106.592
57.3223	382.1871	106.7055
58.0639	382.7371	106.8152
58.7799	383.2915	106.9217
59.488	383.8614	107.0261
60.1851	384.435	107.1281
60.8677	385.0006	107.2277
61.5328	385.5466	107.3249
62.1771	386.0611	107.4194
62.7973	386.5326	107.5113
63.3639	386.9344	107.5961
63.8698	387.2678	107.6726
64.3457	387.5635	107.7451
64.8224	387.8522	107.8179
65.3304	388.1644	107.8953
65.9007	388.5308	107.9818
66.5638	388.9819	108.0816
67.3568	389.5454	108.2002
68.2648	390.2032	108.3356
69.2405	390.9175	108.4809
70.2365	391.6506	108.6292
71.2057	392.3647	108.7733
72.1006	393.0219	108.9066
72.8739	393.5844	109.0219
73.5016	394.0337	109.1157
74.0175	394.3971	109.193
74.4617	394.7057	109.2596
74.874	394.991	109.3215
75.2945	395.2841	109.3846
75.7631	395.6161	109.4547
76.3197	396.0183	109.5378
76.9706	396.4955	109.6347
77.6823	397.0217	109.7405
78.4353	397.5815	109.8524
79.21	398.1597	109.9675
79.9871	398.7411	110.0828
80.747	399.3103	110.1956
81.4702	399.8522	110.3029
82.1645	400.3728	110.406
82.8498	400.8876	110.5076
83.5249	401.3957	110.6077
84.1884	401.8961	110.7061
84.8393	402.388	110.8026
85.4761	402.8703	110.8969
86.0978	403.3421	110.989
86.6813	403.7874	111.0754
87.2202	404.2019	111.1551
87.7379	404.6015	111.2315
88.2574	405.003	111.3083
88.8023	405.4222	111.3888
89.3958	405.8758	111.4766
90.0613	406.3799	111.5752
90.816	406.9606	111.6867
91.6451	407.6122	111.8089
92.5235	408.3029	111.9382
93.4259	409.0015	112.0715
94.3274	409.6765	112.2053
95.2027	410.2962	112.3363
96.0267	410.8293	112.4612
96.8008	411.2868	112.5798
97.5477	411.7003	112.6951
98.2744	412.0692	112.8082
98.9882	412.3932	112.9205
99.6959	412.6716	113.0332
100.4046	412.9038	113.1475
101.1216	413.0893	113.2646
101.8348	413.2117	113.383
102.5342	413.2662	113.5013
103.2293	413.2691	113.6204
103.9292	413.2371	113.7414
104.6436	413.1866	113.8652
105.3817	413.1341	113.9929
106.153	413.0961	114.1255
106.9643	413.064	114.2644
107.8095	413.0203	114.409
108.6786	412.9679	114.5577
109.5617	412.9102	114.7088
110.449	412.8503	114.8607
111.3305	412.7912	115.0115
112.1963	412.7362	115.1596
113.0554	412.6838	115.3066
113.9195	412.6306	115.4544
114.783	412.577	115.602
115.6403	412.5237	115.7486
116.4858	412.4709	115.8932
117.3139	412.4193	116.0348
118.1191	412.3692	116.1725
118.8966	412.3209	116.3055
119.65	412.2739	116.4343
120.3857	412.2279	116.5601
121.1102	412.1828	116.6841
121.83	412.1379	116.8072
122.5518	412.0932	116.9306
123.2819	412.0482	117.0554
123.997	412.0041	117.1776
124.6838	411.9613	117.2951
125.3632	411.9189	117.4112
126.0564	411.8762	117.5298
126.7845	411.8321	117.6541
127.5685	411.7857	117.7878
128.4296	411.736	117.9345
129.3938	411.6818	118.0985
130.451	411.6235	118.2782
131.5682	411.5626	118.468
132.7123	411.5008	118.6623
133.8502	411.4396	118.8554
134.9489	411.3806	119.0419
135.9754	411.3254	119.2162
136.9483	411.2732	119.3813
137.9033	411.2222	119.5434
138.8327	411.1728	119.7011
139.7288	411.1253	119.8531
140.5838	411.0799	119.9982
141.39	411.037	120.135
142.1397	410.9967	120.2622
142.812	410.96	120.3765
143.4071	410.9268	120.4776
143.9482	410.8962	120.5697
144.4585	410.8674	120.6566
144.9616	410.8393	120.7421
145.4806	410.811	120.8303
146.0389	410.7816	120.925
146.6224	410.7539	121.0235
147.2058	410.7296	121.1215
147.7952	410.7062	121.2203
148.3971	410.6814	121.3213
149.0176	410.6524	121.426
149.6632	410.6168	121.5357
150.34	410.5721	121.6519
151.0641	410.5232	121.7763
151.8351	410.474	121.9083
152.635	410.4204	122.0456
153.4457	410.3583	122.186
154.2493	410.2835	122.3271
155.0277	410.1917	122.4667
155.7629	410.0789	122.6023
156.4604	409.9385	122.7361
157.1383	409.7721	122.8705
157.7968	409.5874	123.0045
158.4364	409.3925	123.137
159.0575	409.1953	123.2667
159.6604	409.0037	123.3925
160.2456	408.8256	123.5133
160.7936	408.6626	123.6257
161.2977	408.5081	123.7297
161.7771	408.3578	123.8288
162.2511	408.2079	123.927
162.7389	408.0537	124.0278
163.2596	407.8914	124.1352
163.8326	407.7165	124.2529
164.4592	407.5282	124.381
165.1226	407.3298	124.5165
165.8152	407.1238	124.6578
166.5292	406.9125	124.8033
167.257	406.6982	124.9513
167.991	406.4832	125.1004
168.7233	406.27	125.249
169.4772	406.0525	125.4017
170.267	405.8265	125.5612
171.0724	405.5973	125.7237
171.8727	405.3703	125.8851
172.6475	405.1505	126.0413
173.3763	404.9434	126.1883
174.0386	404.7541	126.322
174.6024	404.5921	126.4361
175.0753	404.4561	126.5317
175.496	404.3347	126.6169
175.9034	404.2166	126.6994
176.3364	404.0904	126.7873
176.8337	403.9449	126.8883
177.4342	403.7687	127.0104
178.1661	403.5581	127.1584
179.0044	403.322	127.3272
179.9079	403.0676	127.509
180.8353	402.8028	127.6963
181.7454	402.5349	127.8814
182.597	402.2715	128.0568
183.3488	402.0201	128.2149
184.001	401.7903	128.3541
184.5905	401.5785	128.4805
185.1307	401.3726	128.5984
185.6352	401.1608	128.7119
186.1173	400.9308	128.825
186.5907	400.6707	128.9419
187.0688	400.3685	129.0667
187.536	400.0254	129.1972
187.9752	399.6525	129.3286
188.3973	399.2526	129.4621
188.8136	398.8284	129.5988
189.2352	398.3827	129.7396
189.6732	397.9182	129.8854
190.1388	397.4377	130.0374
190.6371	396.9284	130.1983
191.16	396.3835	130.3682
191.6985	395.8149	130.5438
192.2439	395.2346	130.7222
192.7871	394.6545	130.9001
193.3193	394.0864	131.0743
193.8316	393.5424	131.2417
194.3306	393.0145	131.4046
194.8263	392.4895	131.5664
195.3152	391.9713	131.7259
195.7937	391.4639	131.8822
196.2581	390.971	132.0339
196.7051	390.4966	132.1799
197.1309	390.0445	132.3191
197.5371	389.6127	132.4521
197.9274	389.197	132.5802
198.3015	388.7981	132.7031
198.659	388.4171	132.8205
198.9995	388.0544	132.9322
199.3228	387.7111	133.0379
199.6285	387.3878	133.1374
199.8996	387.1029	133.2251
200.1307	386.8616	133.2993
200.3389	386.6454	133.3657
200.5414	386.4361	133.43
200.7553	386.2148	133.4979
200.9975	385.9633	133.5752
201.2853	385.6631	133.6675
201.6228	385.3119	133.7755
201.9961	384.9255	133.8942
202.3954	384.5121	134.0211
202.8109	384.0802	134.1539
203.2327	383.6381	134.2899
203.6511	383.1939	134.4266
204.0561	382.7561	134.5617
204.4622	382.3074	134.7004
204.8829	381.8345	134.8468
205.3072	381.352	134.9964
205.7238	380.8745	135.1445
206.1216	380.4164	135.2866
206.4895	379.9924	135.4183
206.8162	379.6168	135.5348
207.0881	379.3046	135.6317
207.3104	379.0479	135.7114
207.5006	378.8267	135.78
207.6763	378.6217	135.8437
207.8549	378.4128	135.9086
208.054	378.1805	135.9808
208.291	377.9048	136.0664
208.5733	377.577	136.1682
208.8879	377.2119	136.2816
209.2214	376.8247	136.4018
209.5607	376.4308	136.5241
209.8927	376.0454	136.6438
210.2041	375.684	136.756
210.4818	375.3618	136.8561
210.7183	375.0875	136.9413
210.9227	374.8505	137.0149
211.107	374.6367	137.0812
211.2831	374.4327	137.1446
211.4629	374.2244	137.2093
211.6582	373.998	137.2796
211.881	373.7397	137.3598
212.1307	373.4501	137.4497
212.3967	373.1417	137.5455
212.6755	372.8184	137.6458
212.9635	372.4844	137.7495
213.2573	372.1436	137.8553
213.5535	371.8001	137.962
213.8485	371.4578	138.0683
214.1532	371.1045	138.178
214.4743	370.7325	138.2935
214.8022	370.3527	138.4114
215.1271	369.9762	138.5283
215.4392	369.6137	138.6409
215.729	369.2765	138.7456
215.9866	368.9753	138.8392
216.2045	368.7253	138.9168
216.3887	368.5217	138.9797
216.5501	368.3458	139.034
216.6995	368.179	139.0856
216.8479	368.0023	139.1406
217.0061	367.7971	139.205
217.1851	367.5445	139.2846
217.3897	367.252	139.377
217.612	366.9386	139.4759
217.8435	366.6031	139.5818
218.0753	366.2448	139.6956
218.299	365.8622	139.8178
218.5057	365.4543	139.9491
218.687	365.0201	140.0901
218.8423	364.5459	140.2455
218.9794	364.0281	140.4162
219.1014	363.4806	140.5974
219.2116	362.9177	140.7842
219.3132	362.3531	140.9719
219.4094	361.8011	141.1555
219.5035	361.2755	141.3302
219.5909	360.7788	141.4954
219.6673	360.2991	141.6551
219.7361	359.8296	141.8117
219.8008	359.3632	141.9673
219.8647	358.893	142.1243
219.9313	358.4119	142.2848
220.0039	357.913	142.4512
220.083	357.3875	142.6264
220.1657	356.8387	142.8093
220.2505	356.2777	142.9963
220.3357	355.7156	143.1836
220.4199	355.1634	143.3677
220.5015	354.6321	143.5447
220.579	354.1328	143.7111
220.6522	353.6726	143.8644
220.7224	353.2438	144.0071
220.7903	352.8359	144.1428
220.8565	352.4381	144.2752
220.9219	352.0397	144.4079
220.987	351.63	144.5443
221.0525	351.1983	144.6882
221.1224	350.7291	144.8447
221.1972	350.2266	145.0123
221.273	349.7099	145.1845
221.3456	349.1984	145.3552
221.4108	348.7108	145.518
221.4646	348.2664	145.6666
221.5029	347.8843	145.7946
221.523	347.5822	145.8962
221.5276	347.3488	145.975
221.5208	347.1601	146.039
221.5066	346.9923	146.0963
221.4891	346.8213	146.1547
221.4724	346.6231	146.2223
221.4605	346.3737	146.307
221.4515	346.0674	146.411
221.4411	345.7234	146.5277
221.4299	345.3555	146.6525
221.4185	344.9777	146.7806
221.4075	344.6039	146.9075
221.3975	344.2477	147.0283
221.3892	343.9232	147.1384
221.3816	343.6319	147.2372
221.3742	343.362	147.3287
221.3673	343.1072	147.415
221.3617	342.8616	147.4984
221.3577	342.6186	147.5807
221.3561	342.3723	147.6642
221.3572	342.1162	147.7508
221.362	341.8494	147.8411
221.37	341.5769	147.9332
221.3805	341.3019	148.026
221.3924	341.0278	148.1186
221.4049	340.7577	148.2098
221.417	340.4948	148.2986
221.4278	340.2425	148.3839
221.4376	340.0019	148.4653
221.4473	339.7704	148.5437
221.457	339.5457	148.6198
221.4666	339.3258	148.6943
221.4761	339.1085	148.7679
221.4856	338.8914	148.8415
221.495	338.6726	148.9157
221.5045	338.4531	148.9901
221.5139	338.2355	149.0638
221.5233	338.0191	149.1371
221.5326	337.8034	149.2102
221.5418	337.5878	149.2833
221.5509	337.3718	149.3566
221.5598	337.1547	149.4303
221.569	336.9386	149.5037
221.5786	336.7245	149.576
221.5883	336.5107	149.6482
221.5975	336.2956	149.7211
221.6058	336.0772	149.7956
221.6128	335.8539	149.8724
221.6179	335.6238	149.9523
221.6213	335.3863	150.0356
221.6236	335.1424	150.1217
221.6246	334.8936	150.2099
221.6244	334.6415	150.3
221.6229	334.3874	150.3912
221.6202	334.1329	150.4832
221.6162	333.8793	150.5754
221.6106	333.6237	150.669
221.6034	333.3638	150.7649
221.5949	333.102	150.862
221.5853	332.8409	150.9593
221.5748	332.5831	151.0558
221.5638	332.331	151.1505
221.5524	332.0871	151.2422
221.543	331.8502	151.3308
221.5362	331.6177	151.4168
221.5295	331.3899	151.501
221.5205	331.1672	151.5843
221.5068	330.9501	151.6673
221.486	330.7388	151.7507
221.4555	330.5338	151.8353
221.4172	330.3391	151.9189
221.3739	330.1555	152.0003
221.3246	329.9791	152.0812
221.2682	329.8057	152.1636
221.2038	329.6312	152.2493
221.1306	329.4516	152.34
221.0473	329.2627	152.4376
220.9549	329.071	152.5396
220.8545	328.8824	152.6433
220.7456	328.6917	152.7507
220.6277	328.4937	152.8641
220.5005	328.2834	152.9852
220.3635	328.0555	153.1161
220.2162	327.8048	153.2589
220.0561	327.5288	153.4154
219.8828	327.2312	153.5844
219.6989	326.9162	153.7634
219.5072	326.5883	153.9498
219.3102	326.2517	154.1413
219.1107	325.9108	154.3352
218.9114	325.5698	154.5291
218.7012	325.2101	154.7336
218.4741	324.8216	154.9545
218.2401	324.4215	155.1819
218.0095	324.0272	155.4062
217.7924	323.6557	155.6174
217.5992	323.3244	155.8056
217.4398	323.0505	155.961
217.3242	322.8506	156.0743
217.2465	322.715	156.1508
217.1935	322.6212	156.2035
217.1521	322.5469	156.245
217.1091	322.4697	156.2881
217.0513	322.3672	156.3456
216.9655	322.2172	156.4302
216.8491	322.0146	156.5447
216.7127	321.7778	156.6786
216.5636	321.5191	156.8249
216.4089	321.2508	156.9767
216.2556	320.9853	157.127
216.111	320.7348	157.2688
215.9821	320.5117	157.3951
215.8721	320.319	157.5037
215.7759	320.1471	157.5999
215.6878	319.9883	157.6885
215.6022	319.8358	157.774
215.5135	319.6822	157.8609
215.4161	319.5201	157.9539
215.3043	319.3423	158.0577
215.1796	319.1457	158.1729
215.0473	318.9355	158.2956
214.9079	318.7173	158.4236
214.7621	318.497	158.5547
214.6104	318.2802	158.6866
214.4534	318.0724	158.817
214.2916	317.8795	158.9436
214.1205	317.6997	159.0687
213.9379	317.5276	159.195
213.7484	317.3628	159.321
213.5564	317.205	159.4454
213.3661	317.0539	159.5667
213.1822	316.9091	159.6835
213.0089	316.7702	159.7944
212.8479	316.6411	159.8976
212.696	316.5233	159.9933
212.5499	316.4131	160.0843
212.4065	316.3069	160.173
212.2626	316.201	160.2616
212.1151	316.0917	160.3528
211.9608	315.9753	160.449
211.7996	315.8523	160.5499
211.6344	315.7261	160.6535
211.4662	315.5974	160.7588
211.2961	315.4671	160.8655
211.1253	315.3358	160.9728
210.9549	315.2044	161.0801
210.7859	315.0735	161.1867
210.6172	314.9429	161.2931
210.4474	314.812	161.3998
210.2774	314.6805	161.5068
210.1079	314.5487	161.6139
209.9396	314.4162	161.7208
209.7734	314.2832	161.8275
209.6099	314.1495	161.9336
209.4489	314.0137	162.0398
209.2896	313.8754	162.1465
209.132	313.7358	162.2531
208.9762	313.5968	162.3592
208.8223	313.4597	162.464
208.6704	313.3259	162.5672
208.5205	313.1969	162.6681
208.3787	313.0776	162.763
208.2467	312.9682	162.851
208.1187	312.8633	162.936
207.9887	312.7579	163.0223
207.8506	312.6465	163.1138
207.6986	312.524	163.2146
207.5267	312.3852	163.3286
207.3258	312.2312	163.457
207.0984	312.0674	163.5967
206.8554	311.8941	163.7451
206.6077	311.7116	163.8997
206.3662	311.5203	164.0581
206.1419	311.3206	164.2177
205.9456	311.1127	164.3759
205.7823	310.8868	164.5393
205.6439	310.6394	164.7122
205.5218	310.38	164.889
205.4075	310.1187	165.0641
205.2926	309.865	165.2319
205.1686	309.6287	165.3867
205.0271	309.4196	165.523
204.8759	309.2397	165.6332
204.7255	309.0812	165.72
204.5705	308.9385	165.7926
204.4058	308.8065	165.8603
204.2261	308.6797	165.9325
204.0262	308.5526	166.0185
203.801	308.42	166.1275
203.547	308.2833	166.2586
203.2679	308.1477	166.4033
202.9686	308.0135	166.5593
202.6543	307.8812	166.7246
202.33	307.7511	166.897
202.0007	307.6236	167.0743
201.6716	307.499	167.2544
201.3256	307.3745	167.4477
200.9527	307.2485	167.6594
200.5681	307.1241	167.88
200.187	307.0041	168.0998
199.8248	306.8913	168.3094
199.4966	306.7886	168.499
199.2179	306.6989	168.6592
199.0095	306.6305	168.7784
198.8651	306.5833	168.8613
198.7583	306.5484	168.9225
198.6631	306.5166	168.9768
198.5535	306.4786	169.039
198.4031	306.4254	169.1238
198.186	306.3478	169.246
197.8931	306.2421	169.4103
197.5447	306.1151	169.6054
197.1585	305.9736	169.8214
196.7521	305.8246	170.0486
196.3433	305.6745	170.2771
195.9496	305.5303	170.4972
195.5889	305.3986	170.6991
195.2661	305.2816	170.8801
194.9671	305.174	171.048
194.6811	305.0714	171.2087
194.3971	304.9695	171.3683
194.1043	304.8638	171.5326
193.7918	304.7502	171.7076
193.4488	304.6241	171.8993
193.0751	304.4857	172.1078
192.6805	304.339	172.3277
192.2686	304.1851	172.5569
191.843	304.0256	172.7936
191.4075	303.8618	173.0356
190.9657	303.695	173.2809
190.5212	303.5266	173.5274
190.068	303.3543	173.7786
189.6008	303.1759	174.0372
189.1245	302.9933	174.3006
188.6438	302.8088	174.5663
188.1637	302.6241	174.8316
187.6888	302.4411	175.0939
187.2241	302.262	175.3506
186.7844	302.0933	175.5937
186.3706	301.9356	175.8229
185.9659	301.7815	176.047
185.554	301.6237	176.2749
185.1181	301.4547	176.5153
184.6417	301.2672	176.777
184.1082	301.0538	177.0688
183.4978	300.8059	177.4013
182.8185	300.527	177.7703
182.0957	300.2284	178.1621
181.355	299.9211	178.5633
180.6216	299.6163	178.9603
179.9211	299.325	179.3394
179.2789	299.0584	179.6872
178.7045	298.8193	179.9979
178.1787	298.5987	180.2818
177.6833	298.3901	180.5489
177.2002	298.1871	180.8096
176.7113	297.9831	181.074
176.1983	297.7715	181.3523
175.6433	297.5461	181.6546
175.0342	297.2943	181.9848
174.3833	297.0177	182.335
173.7084	296.731	182.698
173.0276	296.4488	183.0668
172.3587	296.1854	183.4342
171.7198	295.9555	183.793
171.1287	295.7737	184.1362
170.5765	295.6371	184.4689
170.0442	295.5318	184.7991
169.5349	295.4558	185.1241
169.0515	295.4071	185.4411
168.597	295.3836	185.7472
168.1744	295.3834	186.0397
167.7866	295.4043	186.3158
167.4412	295.4583	186.5742
167.1379	295.5512	186.817
166.8683	295.6718	187.0464
166.624	295.8087	187.2645
166.3965	295.9507	187.4734
166.1775	296.0865	187.6754
165.9584	296.2049	187.8725
165.7548	296.3046	188.0532
165.5793	296.3952	188.2118
165.4193	296.4818	188.359
165.2621	296.5692	188.5058
165.095	296.6625	188.6628
164.9054	296.7667	188.8409
164.6807	296.8867	189.0509
164.4157	297.0255	189.2981
164.12	297.1799	189.5747
163.8029	297.3449	189.8717
163.4737	297.5161	190.1803
163.1418	297.6885	190.4915
162.8166	297.8574	190.7966
162.5073	298.0182	191.0865
162.2129	298.1715	191.3624
161.9247	298.3216	191.6323
161.6407	298.4695	191.8984
161.3588	298.6162	192.1625
161.077	298.7626	192.4267
160.7932	298.9098	192.6928
160.5055	299.0586	192.963
160.2137	299.2091	193.2371
159.9198	299.3605	193.5133
159.6244	299.5124	193.7911
159.3282	299.6645	194.0699
159.0317	299.8163	194.3489
158.7359	299.9676	194.6276
158.4412	300.118	194.9053
158.1498	300.2666	195.1801
157.8617	300.4134	195.4517
157.5747	300.5594	195.7223
157.2865	300.7057	195.9944
156.9947	300.8532	196.2701
156.6972	301.0028	196.5518
156.3915	301.1555	196.8416
156.073	301.3136	197.1442
155.742	301.4769	197.4593
155.4041	301.6427	197.7812
155.0649	301.8088	198.1047
154.7299	301.9724	198.4243
154.4048	302.1311	198.7346
154.095	302.2823	199.0303
153.8015	302.4258	199.3104
153.5195	302.5637	199.5795
153.2463	302.697	199.8401
152.9793	302.8271	200.0951
152.7159	302.9549	200.347
152.4532	303.0818	200.5984
152.1886	303.2087	200.8522
151.9229	303.3351	201.1076
151.6585	303.4599	201.3621
151.3959	303.5832	201.6154
151.1351	303.7052	201.8672
150.8763	303.8261	202.1172
150.6197	303.946	202.3649
150.3655	304.0652	202.6102
150.1124	304.1823	202.8552
149.8599	304.2969	203.1009
149.6091	304.4099	203.3452
149.3613	304.5229	203.5861
149.1176	304.6368	203.8213
148.8793	304.753	204.0489
148.6476	304.8726	204.2666
148.4259	304.9886	204.4739
148.2146	305.0977	204.6724
148.0096	305.2064	204.8634
147.8068	305.3214	205.0483
147.6024	305.4491	205.2284
147.3922	305.5963	205.405
147.1724	305.7694	205.5793
146.9362	305.9785	205.7542
146.685	306.2213	205.9292
146.4268	306.4853	206.1013
146.1695	306.7584	206.2674
145.9212	307.0282	206.4244
145.6899	307.2824	206.5692
145.4835	307.5087	206.6985
145.308	307.7039	206.8077
145.1584	307.8781	206.8979
145.026	308.0382	206.9747
144.9021	308.1918	207.0444
144.778	308.3459	207.1127
144.6451	308.5079	207.1855
144.4947	308.6851	207.2687
144.3305	308.8736	207.3596
144.1618	309.0658	207.452
143.9874	309.2629	207.5468
143.8064	309.4665	207.6445
143.6178	309.6777	207.7461
143.4207	309.8981	207.8521
143.2139	310.1288	207.9633
142.9913	310.3767	208.083
142.7514	310.6427	208.2115
142.5011	310.9196	208.3454
142.247	311.2005	208.4813
141.9959	311.4781	208.6156
141.7545	311.7453	208.7448
141.5295	311.9949	208.8654
141.3202	312.2277	208.9778
141.1202	312.4501	209.0852
140.9283	312.6639	209.1883
140.7427	312.8709	209.2881
140.5622	313.0727	209.3854
140.3852	313.2711	209.4809
140.2103	313.4678	209.5756
140.0429	313.6568	209.6664
139.8863	313.8344	209.7516
139.7354	314.0061	209.8338
139.5851	314.1776	209.916
139.4305	314.3542	210.0005
139.2666	314.5417	210.0902
139.0882	314.7454	210.1877
138.904	314.9555	210.2883
138.7215	315.1638	210.3881
138.5337	315.3784	210.4908
138.3334	315.6072	210.6003
138.1138	315.8582	210.7204
137.8679	316.1393	210.8549
137.5885	316.4586	211.0078
137.2731	316.819	211.1802
136.927	317.2144	211.3695
136.5551	317.6391	211.5728
136.1625	318.0877	211.7875
135.7544	318.5543	212.0108
135.3356	319.0334	212.24
134.9113	319.5193	212.4724
134.4588	320.0383	212.7205
133.9661	320.604	212.9908
133.4541	321.1921	213.2718
132.9438	321.7785	213.552
132.4562	322.3386	213.8196
132.0123	322.8481	214.0631
131.6331	323.2828	214.271
131.326	323.6338	214.4389
131.0748	323.9198	214.576
130.8652	324.1577	214.6901
130.6826	324.3644	214.7893
130.5126	324.557	214.8817
130.3406	324.7522	214.9754
130.1522	324.9671	215.0783
129.9547	325.1933	215.1865
129.7634	325.4129	215.2914
129.5759	325.6286	215.3944
129.3896	325.8432	215.4969
129.2019	326.0594	215.6001
129.0103	326.2799	215.7054
128.8123	326.5075	215.8141
128.6038	326.7454	215.928
128.3859	326.9923	216.0465
128.1634	327.244	216.1674
127.9409	327.4964	216.2885
127.7235	327.7451	216.4074
127.5159	327.9858	216.5221
127.323	328.2144	216.6303
127.1528	328.413	216.7247
127.004	328.5792	216.8048
126.8666	328.7324	216.8787
126.7308	328.8921	216.9544
126.587	329.0775	217.04
126.4253	329.308	217.1433
126.236	329.6029	217.2725
126.0138	329.9697	217.4315
125.7657	330.3936	217.6147
125.5002	330.8607	217.8151
125.2257	331.3573	218.0263
124.9508	331.8693	218.2414
124.6839	332.383	218.4538
124.4334	332.8844	218.6566
124.1984	333.3819	218.8524
123.9708	333.8906	219.048
123.7491	334.4067	219.243
123.5313	334.9267	219.4375
123.3158	335.4467	219.6309
123.1009	335.963	219.8232
122.8847	336.4719	220.0141
122.6713	336.9689	220.2014
122.4634	337.4557	220.3847
122.2577	337.9381	220.566
122.051	338.4221	220.7478
121.8398	338.9132	220.9322
121.6208	339.4174	221.1216
121.3907	339.9404	221.3181
121.1444	340.4922	221.5255
120.8831	341.071	221.7431
120.6131	341.6648	221.9662
120.3406	342.2618	222.1905
120.0718	342.85	222.4116
119.813	343.4176	222.6248
119.5705	343.9527	222.8259
119.3454	344.453	223.0139
119.1327	344.9286	223.1927
118.929	345.3854	223.3643
118.731	345.8296	223.5312
118.5354	346.2672	223.6956
118.3389	346.7041	223.8598
118.1382	347.1466	224.0261
117.9342	347.5931	224.1939
117.7301	348.0377	224.361
117.5261	348.4798	224.5271
117.3224	348.919	224.6921
117.1193	349.3547	224.8559
116.9169	349.7866	225.0182
116.7155	350.2139	225.1787
116.5169	350.6341	225.3366
116.3216	351.0468	225.4917
116.1277	351.4545	225.6449
115.9331	351.8606	225.7975
115.7359	352.2675	225.9504
115.5341	352.6781	226.1047
115.3257	353.0954	226.2615
115.1107	353.5193	226.4208
114.891	353.9475	226.5817
114.6672	354.3787	226.7437
114.4398	354.8121	226.9066
114.2094	355.2466	227.0698
113.9767	355.6812	227.2331
113.7422	356.1148	227.396
113.4995	356.5406	227.556
113.2458	356.9574	227.7126
112.9876	357.3721	227.8683
112.7309	357.792	228.0261
112.4821	358.2242	228.1885
112.2473	358.6757	228.3581
112.0328	359.1537	228.5378
111.8168	359.6742	228.7333
111.5864	360.236	228.9445
111.3614	360.821	229.1643
111.1616	361.4107	229.386
111.0067	361.9869	229.6026
110.9166	362.5313	229.8072
110.9111	363.0254	229.9931
111.0063	363.4749	230.1622
111.1902	363.8978	230.3213
111.4399	364.2947	230.4707
111.7325	364.6663	230.6107
112.0451	365.0131	230.7413
112.3549	365.3356	230.8628
112.639	365.6346	230.9754
112.8987	365.8933	231.0729
113.155	366.1057	231.1527
113.414	366.2882	231.2213
113.6819	366.4573	231.2849
113.965	366.6293	231.3497
114.2694	366.8208	231.4221
114.6014	367.0481	231.5083
114.969	367.313	231.609
115.3694	367.6016	231.719
115.7925	367.9065	231.8353
116.228	368.2205	231.9551
116.666	368.5362	232.0757
117.0964	368.8463	232.1941
117.5088	369.1436	232.3076
117.9048	369.4288	232.4164
118.2936	369.7089	232.5232
118.6774	369.9852	232.6286
119.0583	370.2595	232.7332
119.4384	370.5332	232.8377
119.8197	370.808	232.9426
120.2044	371.0856	233.0485
120.5931	371.3662	233.1556
120.9841	371.6487	233.2634
121.3761	371.932	233.3716
121.7677	372.2153	233.4797
122.1578	372.4974	233.5875
122.545	372.7776	233.6944
122.928	373.0547	233.8002
123.3051	373.3276	233.9045
123.6771	373.5967	234.0072
124.046	373.8636	234.1091
124.4137	374.1298	234.2108
124.7823	374.3968	234.3127
125.1538	374.6662	234.4156
125.5301	374.9395	234.5201
125.9085	375.2145	234.6252
126.2862	375.489	234.7301
126.6654	375.7647	234.8354
127.0482	376.0436	234.9421
127.437	376.3272	235.0505
127.8338	376.6173	235.1615
128.2409	376.9157	235.2757
128.6662	377.2263	235.3945
129.1103	377.5489	235.5178
129.5646	377.8788	235.6439
130.0206	378.2118	235.7713
130.4695	378.5431	235.8982
130.9028	378.8682	236.0232
131.312	379.1825	236.1446
131.6983	379.4919	236.2648
132.07	379.8021	236.3863
132.4285	380.109	236.5069
132.7752	380.4085	236.6248
133.1116	380.6963	236.7379
133.4391	380.9683	236.8443
133.759	381.2203	236.942
134.052	381.4344	237.0239
134.3101	381.6085	237.0894
134.5525	381.7616	237.1463
134.7982	381.9132	237.2023
135.0663	382.0823	237.2651
135.3758	382.2883	237.3424
135.7458	382.5504	237.4421
136.1856	382.8752	237.5666
136.6815	383.2479	237.7099
137.2177	383.6552	237.8669
137.7784	384.0844	238.0324
138.3481	384.5222	238.2014
138.911	384.9554	238.3688
139.4514	385.3712	238.5293
139.9781	385.7768	238.6859
140.5083	386.1864	238.8442
141.0381	386.5968	239.0029
141.5639	387.0052	239.1609
142.0819	387.4083	239.3168
142.5886	387.803	239.4696
143.0801	388.1864	239.618
143.547	388.5546	239.7608
143.9894	388.9092	239.8987
144.418	389.2549	240.0332
144.8436	389.5965	240.1661
145.2769	389.9387	240.2988
145.7287	390.2862	240.433
146.2095	390.6438	240.5703
146.7176	391.0276	240.718
147.2427	391.4387	240.8772
147.7833	391.8594	241.0399
148.3376	392.2722	241.1984
148.9039	392.6592	241.3446
149.4806	393.003	241.4706
150.0661	393.2859	241.5684
150.6822	393.505	241.6357
151.3379	393.6751	241.6788
152.0117	393.8048	241.7026
152.6821	393.903	241.7122
153.3278	393.9782	241.7126
153.9272	394.0391	241.7088
154.4591	394.0943	241.7058
154.883	394.1346	241.7016
155.2048	394.1491	241.6911
155.4718	394.1442	241.6745
155.7312	394.1265	241.6524
156.0305	394.1023	241.625
156.417	394.078	241.5926
156.9382	394.0603	241.5558
157.6126	394.0458	241.5118
158.4043	394.0278	241.4596
159.2791	394.0071	241.4015
160.2022	393.9851	241.3401
161.1394	393.9627	241.2776
162.0562	393.9409	241.2166
162.9182	393.9209	241.1594
163.7506	393.902	241.1043
164.5927	393.8831	241.0487
165.4305	393.8644	240.9933
166.2501	393.8462	240.9392
167.0375	393.8287	240.8871
167.779	393.8121	240.8382
168.4605	393.7966	240.793
169.067	393.7825	240.7528
169.6059	393.7696	240.7169
170.0969	393.7576	240.6841
170.5596	393.7463	240.6532
171.0137	393.7354	240.6229
171.4789	393.7245	240.592
171.9749	393.7135	240.5593
172.4667	393.7104	240.5294
172.9249	393.7181	240.5051
173.3782	393.7285	240.4819
173.8551	393.734	240.4558
174.3839	393.7264	240.4222
174.9933	393.6979	240.377
175.7117	393.6405	240.3158
176.5828	393.5554	240.2365
177.5957	393.4498	240.1421
178.6974	393.3253	240.0361
179.8346	393.1837	239.9224
180.9544	393.0263	239.8045
182.0035	392.8549	239.686
182.9288	392.6708	239.5706
183.7343	392.4654	239.455
184.4686	392.2341	239.335
185.1454	391.9852	239.2125
185.7784	391.7274	239.0896
186.3813	391.4688	238.9682
186.9681	391.218	238.8503
187.5523	390.9832	238.7379
188.1251	390.7621	238.6307
188.6713	390.5464	238.5269
189.1952	390.3357	238.426
189.7011	390.1297	238.3278
190.1935	389.9279	238.2318
190.6766	389.7299	238.1375
191.1548	389.5355	238.0448
191.616	389.3488	237.9556
192.0524	389.1718	237.8711
192.4744	389	237.7892
192.8929	388.8295	237.7079
193.3185	388.656	237.6251
193.7617	388.4752	237.539
194.2334	388.283	237.4474
194.7494	388.0728	237.3471
195.3057	387.8463	237.2391
195.8827	387.6112	237.1269
196.4608	387.3757	237.0146
197.0204	387.1474	236.9058
197.5421	386.9345	236.8045
198.0063	386.7447	236.7144
198.397	386.5853	236.6386
198.7262	386.4513	236.5746
199.0165	386.3332	236.5181
199.2903	386.2214	236.4649
199.5702	386.1059	236.4109
199.8787	385.9772	236.3516
200.2383	385.8256	236.2829
200.6597	385.6525	236.2083
201.1267	385.4671	236.1328
201.6209	385.271	236.0541
202.1239	385.0662	235.9704
202.6175	384.8541	235.8793
203.0833	384.6365	235.7788
203.5029	384.415	235.6667
203.8691	384.1929	235.5458
204.1957	383.9694	235.4189
204.4961	383.741	235.2839
204.7838	383.5042	235.1389
205.0722	383.2552	234.9818
205.3747	382.9905	234.8106
205.7046	382.7065	234.6233
206.0636	382.396	234.4135
206.4403	382.0601	234.181
206.8287	381.7068	233.9327
207.2226	381.3446	233.6757
207.616	380.9814	233.417
208.003	380.6254	233.1635
208.3773	380.2849	232.9225
208.7472	379.9528	232.6884
209.1206	379.6196	232.4531
209.4915	379.2893	232.2198
209.8539	378.9666	231.9916
210.2018	378.6554	231.7713
